44.0000 6.0000 0.3081
44.0000 7.0000 0.2216
44.0000 8.0000 0.2386
44.0000 9.0000 0.2505
44.0000 10.0000 0.2488
44.0000 11.0000 0.2939
44.0000 12.0000 0.2526
44.0000 13.0000 0.2561
44.0000 14.0000 0.2303
44.0000 15.0000 0.2176
44.0000 16.0000 0.2222
44.0000 17.0000 0.2977
44.0000 18.0000 0.2158
44.0000 19.0000 0.2136
44.0000 20.0000 0.2287
44.0000 21.0000 0.1687
44.0000 22.0000 0.1385
44.0000 23.0000 0.1566
44.0000 24.0000 0.1421
44.0000 25.0000 0.0794
44.0000 26.0000 -0.0010
44.0000 27.0000 -0.0563
44.0000 28.0000 -0.1280
44.0000 29.0000 -0.1908
44.0000 30.0000 -0.2455
44.0000 31.0000 -0.2910
44.0000 32.0000 -0.2615
44.0000 33.0000 -0.2429
44.0000 34.0000 -0.2676
44.0000 35.0000 -0.3319
44.0000 36.0000 -0.3804
44.0000 37.0000 -0.4012
44.0000 38.0000 -0.4279
44.0000 39.0000 -0.4503
44.0000 40.0000 -0.4823
44.0000 41.0000 -0.4916
44.0000 42.0000 -0.5025
44.0000 43.0000 -0.5320
44.0000 44.0000 -0.5454
44.0000 45.0000 -0.5655
44.0000 46.0000 -0.5924
44.0000 47.0000 -0.6392
44.0000 48.0000 -0.6514
44.0000 49.0000 -0.6687
44.0000 50.0000 -0.6800
44.0000 51.0000 -0.6944
44.0000 52.0000 -0.7048
44.0000 53.0000 -0.7433
44.0000 54.0000 -0.7627
44.0000 55.0000 -0.7022
44.0000 56.0000 -0.6148
44.0000 57.0000 -0.6596
44.0000 58.0000 -0.6630
44.0000 59.0000 -0.6595
44.0000 60.0000 -0.6708
44.0000 61.0000 -0.7063
44.0000 62.0000 -0.4809
44.0000 63.0000 0.3161
44.0000 64.0000 1.0479
44.0000 65.0000 1.0682
44.0000 66.0000 1.1307
44.0000 67.0000 1.1435
44.0000 68.0000 1.1497
44.0000 69.0000 1.2246
44.0000 70.0000 1.1824
44.0000 71.0000 0.0064
44.0000 72.0000 -0.6611
44.0000 73.0000 -0.8267
44.0000 74.0000 -0.8789
44.0000 75.0000 -0.8755
44.0000 76.0000 -0.8726
44.0000 77.0000 -0.8652
44.0000 78.0000 -0.8839
44.0000 79.0000 -0.9021
44.0000 80.0000 -0.9285
44.0000 81.0000 -0.9427
44.0000 82.0000 -0.9259
44.0000 83.0000 -0.8503
44.0000 84.0000 -0.7204
44.0000 85.0000 -0.5473
44.0000 86.0000 -0.3534
44.0000 87.0000 -0.1530
44.0000 88.0000 -0.0135
44.0000 89.0000 0.0936
44.0000 90.0000 0.1881
44.0000 91.0000 0.2734
44.0000 92.0000 0.3213
44.0000 93.0000 0.3569
44.0000 94.0000 0.3976
44.0000 95.0000 0.4296
44.0000 96.0000 0.4663
44.0000 97.0000 0.5053
44.0000 98.0000 0.5173
44.0000 99.0000 0.5598
44.0000 100.0000 0.6266
44.0000 101.0000 0.8388
44.0000 102.0000 0.8835
44.0000 103.0000 0.6040
44.0000 104.0000 0.3582
44.0000 105.0000 0.1728
44.0000 106.0000 0.1274
44.0000 107.0000 0.2664
44.0000 108.0000 0.5437
44.0000 109.0000 0.8492
44.0000 110.0000 0.7686
44.0000 111.0000 0.5808
44.0000 112.0000 0.5265
44.0000 113.0000 0.4959
44.0000 114.0000 0.4391
44.0000 115.0000 0.3805
44.0000 116.0000 0.3270
44.0000 117.0000 0.2538
44.0000 118.0000 0.2004
44.0000 119.0000 0.2295
44.0000 120.0000 0.1506
45.0000 0.0000 0.0118
45.0000 1.0000 -0.0453
45.0000 2.0000 0.0541
45.0000 3.0000 0.0085
45.0000 4.0000 0.0601
45.0000 5.0000 0.1379
45.0000 6.0000 0.1747
45.0000 7.0000 0.1336
45.0000 8.0000 0.1583
45.0000 9.0000 0.1461
45.0000 10.0000 0.1129
45.0000 11.0000 0.1021
45.0000 12.0000 0.0994
45.0000 13.0000 0.0967
45.0000 14.0000 0.1035
45.0000 15.0000 0.1258
45.0000 16.0000 0.2152
45.0000 17.0000 0.1122
45.0000 18.0000 0.1244
45.0000 19.0000 0.1329
45.0000 20.0000 0.1242
45.0000 21.0000 0.0902
45.0000 22.0000 0.0876
45.0000 23.0000 0.0764
45.0000 24.0000 0.0682
45.0000 25.0000 0.0194
45.0000 26.0000 -0.0380
45.0000 27.0000 -0.0715
45.0000 28.0000 -0.1087
45.0000 29.0000 -0.2092
45.0000 30.0000 -0.2569
45.0000 31.0000 -0.2516
45.0000 32.0000 -0.1118
45.0000 33.0000 -0.0236
45.0000 34.0000 0.0503
45.0000 35.0000 -0.1018
45.0000 36.0000 -0.3643
45.0000 37.0000 -0.3911
45.0000 38.0000 -0.4332
45.0000 39.0000 -0.4691
45.0000 40.0000 -0.5012
45.0000 41.0000 -0.5138
45.0000 42.0000 -0.5245
45.0000 43.0000 -0.5241
45.0000 44.0000 -0.5300
45.0000 45.0000 -0.5641
45.0000 46.0000 -0.5901
45.0000 47.0000 -0.6240
45.0000 48.0000 -0.6430
45.0000 49.0000 -0.6461
45.0000 50.0000 -0.6646
45.0000 51.0000 -0.6879
45.0000 52.0000 -0.6805
45.0000 53.0000 -0.7018
45.0000 54.0000 -0.7247
45.0000 55.0000 -0.6999
45.0000 56.0000 -0.6922
45.0000 57.0000 -0.6707
45.0000 58.0000 -0.6539
45.0000 59.0000 -0.6450
45.0000 60.0000 -0.6561
45.0000 61.0000 -0.7175
45.0000 62.0000 -0.7066
45.0000 63.0000 -0.1532
45.0000 64.0000 0.8154
45.0000 65.0000 1.1659
45.0000 66.0000 1.1855
45.0000 67.0000 1.1776
45.0000 68.0000 1.1850
45.0000 69.0000 1.2245
45.0000 70.0000 1.3082
45.0000 71.0000 0.5690
45.0000 72.0000 -0.1559
45.0000 73.0000 -0.6122
45.0000 74.0000 -0.8737
45.0000 75.0000 -0.8878
45.0000 76.0000 -0.8743
45.0000 77.0000 -0.8752
45.0000 78.0000 -0.8741
45.0000 79.0000 -0.8807
45.0000 80.0000 -0.9217
45.0000 81.0000 -0.9336
45.0000 82.0000 -0.9190
45.0000 83.0000 -0.8318
45.0000 84.0000 -0.7046
45.0000 85.0000 -0.5498
45.0000 86.0000 -0.3967
45.0000 87.0000 -0.2269
45.0000 88.0000 -0.1023
45.0000 89.0000 0.0385
45.0000 90.0000 0.1396
45.0000 91.0000 0.2147
45.0000 92.0000 0.2989
45.0000 93.0000 0.3468
45.0000 94.0000 0.3952
45.0000 95.0000 0.4124
45.0000 96.0000 0.4472
45.0000 97.0000 0.4882
45.0000 98.0000 0.5083
45.0000 99.0000 0.5652
45.0000 100.0000 0.6971
45.0000 101.0000 0.9305
45.0000 102.0000 0.6711
45.0000 103.0000 0.3266
45.0000 104.0000 0.0160
45.0000 105.0000 -0.2509
45.0000 106.0000 -0.2988
45.0000 107.0000 -0.0519
45.0000 108.0000 0.3224
45.0000 109.0000 0.6958
45.0000 110.0000 0.8685
45.0000 111.0000 0.6319
45.0000 112.0000 0.5278
45.0000 113.0000 0.4653
45.0000 114.0000 0.4264
45.0000 115.0000 0.3766
45.0000 116.0000 0.3205
45.0000 117.0000 0.2612
45.0000 118.0000 0.2036
45.0000 119.0000 0.1690
45.0000 120.0000 0.1499
46.0000 0.0000 -0.0092
46.0000 1.0000 -0.0474
46.0000 2.0000 -0.0379
46.0000 3.0000 -0.0374
46.0000 4.0000 0.0104
46.0000 5.0000 0.0532
46.0000 6.0000 0.0387
46.0000 7.0000 0.0297
46.0000 8.0000 0.0597
46.0000 9.0000 0.0698
46.0000 10.0000 0.0269
46.0000 11.0000 0.0207
46.0000 12.0000 0.0434
46.0000 13.0000 0.0312
46.0000 14.0000 0.0383
46.0000 15.0000 0.0606
46.0000 16.0000 0.0606
46.0000 17.0000 0.0675
46.0000 18.0000 0.1238
46.0000 19.0000 0.1074
46.0000 20.0000 0.0628
46.0000 21.0000 0.0483
46.0000 22.0000 0.0345
46.0000 23.0000 0.0411
46.0000 24.0000 0.0209
46.0000 25.0000 -0.0209
46.0000 26.0000 -0.0497
46.0000 27.0000 -0.1112
46.0000 28.0000 -0.1409
46.0000 29.0000 -0.2001
46.0000 30.0000 -0.2566
46.0000 31.0000 -0.2344
46.0000 32.0000 0.0013
46.0000 33.0000 0.1270
46.0000 34.0000 0.1184
46.0000 35.0000 -0.0991
46.0000 36.0000 -0.3316
46.0000 37.0000 -0.4000
46.0000 38.0000 -0.4262
46.0000 39.0000 -0.4509
46.0000 40.0000 -0.4712
46.0000 41.0000 -0.5023
46.0000 42.0000 -0.5332
46.0000 43.0000 -0.5292
46.0000 44.0000 -0.5371
46.0000 45.0000 -0.5574
46.0000 46.0000 -0.5911
46.0000 47.0000 -0.6269
46.0000 48.0000 -0.6234
46.0000 49.0000 -0.6392
46.0000 50.0000 -0.6563
46.0000 51.0000 -0.6661
46.0000 52.0000 -0.6775
46.0000 53.0000 -0.7036
46.0000 54.0000 -0.7017
46.0000 55.0000 -0.6889
46.0000 56.0000 -0.6998
46.0000 57.0000 -0.6818
46.0000 58.0000 -0.6841
46.0000 59.0000 -0.6787
46.0000 60.0000 -0.6803
46.0000 61.0000 -0.7196
46.0000 62.0000 -0.6992
46.0000 63.0000 -0.5503
46.0000 64.0000 0.1691
46.0000 65.0000 1.2569
46.0000 66.0000 1.2587
46.0000 67.0000 1.3155
46.0000 68.0000 1.2649
46.0000 69.0000 1.2866
46.0000 70.0000 1.2855
46.0000 71.0000 0.7655
46.0000 72.0000 -0.0853
46.0000 73.0000 -0.7811
46.0000 74.0000 -0.8728
46.0000 75.0000 -0.8691
46.0000 76.0000 -0.8728
46.0000 77.0000 -0.8728
46.0000 78.0000 -0.8776
46.0000 79.0000 -0.8746
46.0000 80.0000 -0.9033
46.0000 81.0000 -0.9174
46.0000 82.0000 -0.8773
46.0000 83.0000 -0.7952
46.0000 84.0000 -0.6878
46.0000 85.0000 -0.5678
46.0000 86.0000 -0.4241
46.0000 87.0000 -0.2880
46.0000 88.0000 -0.1585
46.0000 89.0000 -0.0343
46.0000 90.0000 0.1103
46.0000 91.0000 0.2273
46.0000 92.0000 0.3009
46.0000 93.0000 0.3417
46.0000 94.0000 0.3564
46.0000 95.0000 0.3689
46.0000 96.0000 0.4245
46.0000 97.0000 0.4611
46.0000 98.0000 0.5095
46.0000 99.0000 0.5647
46.0000 100.0000 0.7978
46.0000 101.0000 0.8689
46.0000 102.0000 0.5155
46.0000 103.0000 0.1438
46.0000 104.0000 -0.2594
46.0000 105.0000 -0.5428
46.0000 106.0000 -0.5451
46.0000 107.0000 -0.2351
46.0000 108.0000 0.1858
46.0000 109.0000 0.5925
46.0000 110.0000 0.8843
46.0000 111.0000 0.8063
46.0000 112.0000 0.5389
46.0000 113.0000 0.4718
46.0000 114.0000 0.4146
46.0000 115.0000 0.3603
46.0000 116.0000 0.3069
46.0000 117.0000 0.2494
46.0000 118.0000 0.1950
46.0000 119.0000 0.1615
46.0000 120.0000 0.1557
47.0000 0.0000 -0.0306
47.0000 1.0000 0.0055
47.0000 2.0000 -0.0943
47.0000 3.0000 0.0025
47.0000 4.0000 -0.0321
47.0000 5.0000 -0.0343
47.0000 6.0000 -0.0011
47.0000 7.0000 -0.0544
47.0000 8.0000 -0.0329
47.0000 9.0000 -0.0411
47.0000 10.0000 -0.0791
47.0000 11.0000 -0.0825
47.0000 12.0000 -0.0709
47.0000 13.0000 -0.0551
47.0000 14.0000 -0.0462
47.0000 15.0000 -0.0233
47.0000 16.0000 -0.0032
47.0000 17.0000 0.0456
47.0000 18.0000 0.0687
47.0000 19.0000 0.0761
47.0000 20.0000 0.0042
47.0000 21.0000 0.0113
47.0000 22.0000 0.0068
47.0000 23.0000 -0.0130
47.0000 24.0000 -0.0328
47.0000 25.0000 -0.0101
47.0000 26.0000 -0.0390
47.0000 27.0000 -0.0751
47.0000 28.0000 0.0047
47.0000 29.0000 -0.1819
47.0000 30.0000 -0.2507
47.0000 31.0000 -0.2507
47.0000 32.0000 -0.0915
47.0000 33.0000 0.1074
47.0000 34.0000 0.1479
47.0000 35.0000 -0.0092
47.0000 36.0000 -0.2566
47.0000 37.0000 -0.4096
47.0000 38.0000 -0.4219
47.0000 39.0000 -0.4559
47.0000 40.0000 -0.4872
47.0000 41.0000 -0.4925
47.0000 42.0000 -0.5129
47.0000 43.0000 -0.5110
47.0000 44.0000 -0.5299
47.0000 45.0000 -0.5267
47.0000 46.0000 -0.5892
47.0000 47.0000 -0.6007
47.0000 48.0000 -0.6209
47.0000 49.0000 -0.6201
47.0000 50.0000 -0.6337
47.0000 51.0000 -0.6488
47.0000 52.0000 -0.6620
47.0000 53.0000 -0.6722
47.0000 54.0000 -0.6685
47.0000 55.0000 -0.6917
47.0000 56.0000 -0.6811
47.0000 57.0000 -0.6834
47.0000 58.0000 -0.6838
47.0000 59.0000 -0.6893
47.0000 60.0000 -0.6908
47.0000 61.0000 -0.6947
47.0000 62.0000 -0.6969
47.0000 63.0000 -0.6886
47.0000 64.0000 -0.3631
47.0000 65.0000 0.8434
47.0000 66.0000 1.3142
47.0000 67.0000 1.2779
47.0000 68.0000 1.2887
47.0000 69.0000 1.2728
47.0000 70.0000 1.2793
47.0000 71.0000 1.1300
47.0000 72.0000 -0.2642
47.0000 73.0000 -0.8756
47.0000 74.0000 -0.8602
47.0000 75.0000 -0.8635
47.0000 76.0000 -0.8746
47.0000 77.0000 -0.8541
47.0000 78.0000 -0.8569
47.0000 79.0000 -0.8926
47.0000 80.0000 -0.8907
47.0000 81.0000 -0.8891
47.0000 82.0000 -0.8580
47.0000 83.0000 -0.7888
47.0000 84.0000 -0.6939
47.0000 85.0000 -0.5758
47.0000 86.0000 -0.4533
47.0000 87.0000 -0.3223
47.0000 88.0000 -0.1828
47.0000 89.0000 -0.0480
47.0000 90.0000 0.0802
47.0000 91.0000 0.1910
47.0000 92.0000 0.2541
47.0000 93.0000 0.3278
47.0000 94.0000 0.3279
47.0000 95.0000 0.3849
47.0000 96.0000 0.4122
47.0000 97.0000 0.4464
47.0000 98.0000 0.4972
47.0000 99.0000 0.5770
47.0000 100.0000 0.8138
47.0000 101.0000 0.8299
47.0000 102.0000 0.4892
47.0000 103.0000 0.0573
47.0000 104.0000 -0.3855
47.0000 105.0000 -0.6140
47.0000 106.0000 -0.4783
47.0000 107.0000 -0.1810
47.0000 108.0000 0.2153
47.0000 109.0000 0.6208
47.0000 110.0000 0.8851
47.0000 111.0000 0.6591
47.0000 112.0000 0.5348
47.0000 113.0000 0.4476
47.0000 114.0000 0.3876
47.0000 115.0000 0.3449
47.0000 116.0000 0.2896
47.0000 117.0000 0.2410
47.0000 118.0000 0.1957
47.0000 119.0000 0.1505
47.0000 120.0000 0.1484
48.0000 0.0000 -0.0136
48.0000 1.0000 -0.0544
48.0000 2.0000 -0.0707
48.0000 3.0000 -0.0505
48.0000 4.0000 -0.0766
48.0000 5.0000 -0.0641
48.0000 6.0000 -0.0472
48.0000 7.0000 -0.0848
48.0000 8.0000 -0.0971
48.0000 9.0000 -0.1079
48.0000 10.0000 -0.1068
48.0000 11.0000 -0.1137
48.0000 12.0000 -0.1208
48.0000 13.0000 -0.0972
48.0000 14.0000 -0.0824
48.0000 15.0000 -0.0179
48.0000 16.0000 0.0166
48.0000 17.0000 -0.0095
48.0000 18.0000 0.0032
48.0000 19.0000 0.0196
48.0000 20.0000 0.0998
48.0000 21.0000 0.0095
48.0000 22.0000 -0.0105
48.0000 23.0000 -0.0335
48.0000 24.0000 -0.0504
48.0000 25.0000 -0.0714
48.0000 26.0000 -0.0782
48.0000 27.0000 -0.0897
48.0000 28.0000 -0.1047
48.0000 29.0000 -0.1674
48.0000 30.0000 -0.2500
48.0000 31.0000 -0.2713
48.0000 32.0000 -0.1415
48.0000 33.0000 -0.0032
48.0000 34.0000 0.0355
48.0000 35.0000 -0.1028
48.0000 36.0000 -0.2883
48.0000 37.0000 -0.4153
48.0000 38.0000 -0.4542
48.0000 39.0000 -0.4543
48.0000 40.0000 -0.4883
48.0000 41.0000 -0.4766
48.0000 42.0000 -0.4835
48.0000 43.0000 -0.4928
48.0000 44.0000 -0.5056
48.0000 45.0000 -0.5208
48.0000 46.0000 -0.5870
48.0000 47.0000 -0.6095
48.0000 48.0000 -0.6188
48.0000 49.0000 -0.6281
48.0000 50.0000 -0.6437
48.0000 51.0000 -0.6560
48.0000 52.0000 -0.6467
48.0000 53.0000 -0.6448
48.0000 54.0000 -0.6398
48.0000 55.0000 -0.6518
48.0000 56.0000 -0.6598
48.0000 57.0000 -0.6820
48.0000 58.0000 -0.6906
48.0000 59.0000 -0.6805
48.0000 60.0000 -0.6861
48.0000 61.0000 -0.6815
48.0000 62.0000 -0.6992
48.0000 63.0000 -0.6750
48.0000 64.0000 -0.3311
48.0000 65.0000 0.5822
48.0000 66.0000 1.3368
48.0000 67.0000 1.3419
48.0000 68.0000 1.3044
48.0000 69.0000 1.2813
48.0000 70.0000 1.3036
48.0000 71.0000 0.6637
48.0000 72.0000 -0.6767
48.0000 73.0000 -0.8746
48.0000 74.0000 -0.8683
48.0000 75.0000 -0.8653
48.0000 76.0000 -0.8625
48.0000 77.0000 -0.8619
48.0000 78.0000 -0.8691
48.0000 79.0000 -0.8914
48.0000 80.0000 -0.9033
48.0000 81.0000 -0.8868
48.0000 82.0000 -0.8560
48.0000 83.0000 -0.7914
48.0000 84.0000 -0.7064
48.0000 85.0000 -0.5970
48.0000 86.0000 -0.4636
48.0000 87.0000 -0.3210
48.0000 88.0000 -0.1838
48.0000 89.0000 -0.0211
48.0000 90.0000 0.1499
48.0000 91.0000 0.2311
48.0000 92.0000 0.2963
48.0000 93.0000 0.3238
48.0000 94.0000 0.3226
48.0000 95.0000 0.3572
48.0000 96.0000 0.4129
48.0000 97.0000 0.4206
48.0000 98.0000 0.4663
48.0000 99.0000 0.5596
48.0000 100.0000 0.7544
48.0000 101.0000 0.8394
48.0000 102.0000 0.5442
48.0000 103.0000 0.1185
48.0000 104.0000 -0.3116
48.0000 105.0000 -0.5238
48.0000 106.0000 -0.4231
48.0000 107.0000 -0.0924
48.0000 108.0000 0.3631
48.0000 109.0000 0.6582
48.0000 110.0000 0.8834
48.0000 111.0000 0.6545
48.0000 112.0000 0.5267
48.0000 113.0000 0.4450
48.0000 114.0000 0.3818
48.0000 115.0000 0.3355
48.0000 116.0000 0.2902
48.0000 117.0000 0.3245
48.0000 118.0000 0.1930
48.0000 119.0000 0.1478
48.0000 120.0000 0.1458
49.0000 0.0000 -0.0173
49.0000 1.0000 -0.0695
49.0000 2.0000 -0.0644
49.0000 3.0000 -0.1155
49.0000 4.0000 -0.1155
49.0000 5.0000 -0.1039
49.0000 6.0000 -0.0210
49.0000 7.0000 -0.0689
49.0000 8.0000 -0.1337
49.0000 9.0000 -0.1637
49.0000 10.0000 -0.1750
49.0000 11.0000 -0.1560
49.0000 12.0000 -0.1629
49.0000 13.0000 -0.0907
49.0000 14.0000 -0.1148
49.0000 15.0000 -0.0932
49.0000 16.0000 -0.0576
49.0000 17.0000 -0.0349
49.0000 18.0000 -0.0049
49.0000 19.0000 0.0024
49.0000 20.0000 -0.0104
49.0000 21.0000 -0.0571
49.0000 22.0000 -0.0086
49.0000 23.0000 -0.0137
49.0000 24.0000 -0.0349
49.0000 25.0000 -0.0384
49.0000 26.0000 -0.0496
49.0000 27.0000 -0.0641
49.0000 28.0000 -0.0864
49.0000 29.0000 -0.1709
49.0000 30.0000 -0.2451
49.0000 31.0000 -0.2539
49.0000 32.0000 -0.2524
49.0000 33.0000 -0.1911
49.0000 34.0000 -0.1897
49.0000 35.0000 -0.2985
49.0000 36.0000 -0.3752
49.0000 37.0000 -0.4204
49.0000 38.0000 -0.4409
49.0000 39.0000 -0.4621
49.0000 40.0000 -0.4615
49.0000 41.0000 -0.4719
49.0000 42.0000 -0.4822
49.0000 43.0000 -0.4812
49.0000 44.0000 -0.4737
49.0000 45.0000 -0.5092
49.0000 46.0000 -0.5701
49.0000 47.0000 -0.6011
49.0000 48.0000 -0.6286
49.0000 49.0000 -0.6394
49.0000 50.0000 -0.6371
49.0000 51.0000 -0.6361
49.0000 52.0000 -0.6392
49.0000 53.0000 -0.5988
49.0000 54.0000 -0.5932
49.0000 55.0000 -0.5970
49.0000 56.0000 -0.6150
49.0000 57.0000 -0.6603
49.0000 58.0000 -0.7017
49.0000 59.0000 -0.6902
49.0000 60.0000 -0.6711
49.0000 61.0000 -0.6735
49.0000 62.0000 -0.6963
49.0000 63.0000 -0.7016
49.0000 64.0000 -0.4986
49.0000 65.0000 -0.2203
49.0000 66.0000 0.6507
49.0000 67.0000 1.2234
49.0000 68.0000 1.2874
49.0000 69.0000 1.2645
49.0000 70.0000 1.0053
49.0000 71.0000 -0.2263
49.0000 72.0000 -0.8528
49.0000 73.0000 -0.8484
49.0000 74.0000 -0.8490
49.0000 75.0000 -0.8672
49.0000 76.0000 -0.8572
49.0000 77.0000 -0.8455
49.0000 78.0000 -0.8800
49.0000 79.0000 -0.8962
49.0000 80.0000 -0.8807
49.0000 81.0000 -0.8763
49.0000 82.0000 -0.8408
49.0000 83.0000 -0.8022
49.0000 84.0000 -0.7271
49.0000 85.0000 -0.6115
49.0000 86.0000 -0.4817
49.0000 87.0000 -0.3430
49.0000 88.0000 -0.1960
49.0000 89.0000 -0.0797
49.0000 90.0000 0.1235
49.0000 91.0000 0.2387
49.0000 92.0000 0.2809
49.0000 93.0000 0.3298
49.0000 94.0000 0.3636
49.0000 95.0000 0.3433
49.0000 96.0000 0.3857
49.0000 97.0000 0.4073
49.0000 98.0000 0.4645
49.0000 99.0000 0.5335
49.0000 100.0000 0.7545
49.0000 101.0000 0.8518
49.0000 102.0000 0.5623
49.0000 103.0000 0.3046
49.0000 104.0000 -0.0656
49.0000 105.0000 -0.1898
49.0000 106.0000 -0.0624
49.0000 107.0000 0.2208
49.0000 108.0000 0.5761
49.0000 109.0000 0.8685
49.0000 110.0000 0.8313
49.0000 111.0000 0.5986
49.0000 112.0000 0.5232
49.0000 113.0000 0.4472
49.0000 114.0000 0.3730
49.0000 115.0000 0.3298
49.0000 116.0000 0.2715
49.0000 117.0000 0.2208
49.0000 118.0000 0.1702
49.0000 119.0000 0.1326
49.0000 120.0000 0.1334
50.0000 0.0000 -0.0217
50.0000 1.0000 -0.0479
50.0000 2.0000 -0.0496
50.0000 3.0000 -0.1034
50.0000 4.0000 -0.0218
50.0000 5.0000 -0.1248
50.0000 6.0000 -0.1143
50.0000 7.0000 -0.1618
50.0000 8.0000 -0.1720
50.0000 9.0000 -0.1916
50.0000 10.0000 -0.1704
50.0000 11.0000 -0.1763
50.0000 12.0000 -0.1825
50.0000 13.0000 -0.1439
50.0000 14.0000 -0.1614
50.0000 15.0000 -0.1138
50.0000 16.0000 -0.0784
50.0000 17.0000 -0.0744
50.0000 18.0000 0.0614
50.0000 19.0000 -0.0090
50.0000 20.0000 0.0030
50.0000 21.0000 -0.0104
50.0000 22.0000 -0.0116
50.0000 23.0000 -0.0048
50.0000 24.0000 -0.0217
50.0000 25.0000 -0.0355
50.0000 26.0000 -0.0588
50.0000 27.0000 -0.0501
50.0000 28.0000 -0.0971
50.0000 29.0000 -0.1859
50.0000 30.0000 -0.2449
50.0000 31.0000 -0.2490
50.0000 32.0000 -0.2780
50.0000 33.0000 -0.2792
50.0000 34.0000 -0.2767
50.0000 35.0000 -0.3035
50.0000 36.0000 -0.3546
50.0000 37.0000 -0.3943
50.0000 38.0000 -0.4043
50.0000 39.0000 -0.4351
50.0000 40.0000 -0.4473
50.0000 41.0000 -0.4785
50.0000 42.0000 -0.4684
50.0000 43.0000 -0.4618
50.0000 44.0000 -0.4759
50.0000 45.0000 -0.5098
50.0000 46.0000 -0.5673
50.0000 47.0000 -0.5978
50.0000 48.0000 -0.6197
50.0000 49.0000 -0.6306
50.0000 50.0000 -0.6292
50.0000 51.0000 -0.5883
50.0000 52.0000 -0.6348
50.0000 53.0000 -0.6114
50.0000 54.0000 -0.5821
50.0000 55.0000 -0.5715
50.0000 56.0000 -0.5927
50.0000 57.0000 -0.6330
50.0000 58.0000 -0.6657
50.0000 59.0000 -0.6998
50.0000 60.0000 -0.6142
50.0000 61.0000 -0.6716
50.0000 62.0000 -0.6894
50.0000 63.0000 -0.6972
50.0000 64.0000 -0.6993
50.0000 65.0000 -0.6706
50.0000 66.0000 -0.4659
50.0000 67.0000 -0.1062
50.0000 68.0000 0.0989
50.0000 69.0000 -0.0468
50.0000 70.0000 -0.4076
50.0000 71.0000 -0.8405
50.0000 72.0000 -0.8441
50.0000 73.0000 -0.8323
50.0000 74.0000 -0.7849
50.0000 75.0000 -0.7184
50.0000 76.0000 -0.8455
50.0000 77.0000 -0.8481
50.0000 78.0000 -0.8684
50.0000 79.0000 -0.8867
50.0000 80.0000 -0.8698
50.0000 81.0000 -0.8627
50.0000 82.0000 -0.8334
50.0000 83.0000 -0.8126
50.0000 84.0000 -0.7642
50.0000 85.0000 -0.6572
50.0000 86.0000 -0.5464
50.0000 87.0000 -0.3491
50.0000 88.0000 -0.1388
50.0000 89.0000 0.0711
50.0000 90.0000 0.1068
50.0000 91.0000 0.1951
50.0000 92.0000 0.2975
50.0000 93.0000 0.3379
50.0000 94.0000 0.3512
50.0000 95.0000 0.3747
50.0000 96.0000 0.3732
50.0000 97.0000 0.4057
50.0000 98.0000 0.4512
50.0000 99.0000 0.4992
50.0000 100.0000 0.5543
50.0000 101.0000 0.8256
50.0000 102.0000 0.8719
50.0000 103.0000 0.5634
50.0000 104.0000 0.3264
50.0000 105.0000 0.2488
50.0000 106.0000 0.3492
50.0000 107.0000 0.5706
50.0000 108.0000 0.8305
50.0000 109.0000 0.9228
50.0000 110.0000 0.6825
50.0000 111.0000 0.5955
50.0000 112.0000 0.5065
50.0000 113.0000 0.4355
50.0000 114.0000 0.3810
50.0000 115.0000 0.3064
50.0000 116.0000 0.2542
50.0000 117.0000 0.2045
50.0000 118.0000 0.1657
50.0000 119.0000 0.1276
50.0000 120.0000 0.1509
51.0000 0.0000 -0.0571
51.0000 1.0000 -0.0808
51.0000 2.0000 0.0006
51.0000 3.0000 -0.0890
51.0000 4.0000 -0.1332
51.0000 5.0000 -0.0104
51.0000 6.0000 -0.1063
51.0000 7.0000 -0.1596
51.0000 8.0000 -0.1982
51.0000 9.0000 -0.2026
51.0000 10.0000 -0.2065
51.0000 11.0000 -0.1990
51.0000 12.0000 -0.1872
51.0000 13.0000 -0.1829
51.0000 14.0000 -0.1556
51.0000 15.0000 -0.1456
51.0000 16.0000 -0.1073
51.0000 17.0000 -0.0274
51.0000 18.0000 -0.0081
51.0000 19.0000 -0.0180
51.0000 20.0000 -0.0137
51.0000 21.0000 -0.0286
51.0000 22.0000 0.0131
51.0000 23.0000 0.0526
51.0000 24.0000 0.0594
51.0000 25.0000 0.0029
51.0000 26.0000 -0.0850
51.0000 27.0000 -0.0706
51.0000 28.0000 -0.0950
51.0000 29.0000 -0.1466
51.0000 30.0000 -0.2473
51.0000 31.0000 -0.2644
51.0000 32.0000 -0.2860
51.0000 33.0000 -0.2662
51.0000 34.0000 -0.2558
51.0000 35.0000 -0.2695
51.0000 36.0000 -0.3428
51.0000 37.0000 -0.3821
51.0000 38.0000 -0.4056
51.0000 39.0000 -0.4210
51.0000 40.0000 -0.4270
51.0000 41.0000 -0.4415
51.0000 42.0000 -0.4553
51.0000 43.0000 -0.4602
51.0000 44.0000 -0.4784
51.0000 45.0000 -0.5005
51.0000 46.0000 -0.5577
51.0000 47.0000 -0.5864
51.0000 48.0000 -0.6123
51.0000 49.0000 -0.6205
51.0000 50.0000 -0.6272
51.0000 51.0000 -0.5951
51.0000 52.0000 -0.6170
51.0000 53.0000 -0.6088
51.0000 54.0000 -0.5869
51.0000 55.0000 -0.5565
51.0000 56.0000 -0.5572
51.0000 57.0000 -0.5945
51.0000 58.0000 -0.6287
51.0000 59.0000 -0.6440
51.0000 60.0000 -0.5646
51.0000 61.0000 -0.6716
51.0000 62.0000 -0.6642
51.0000 63.0000 -0.6729
51.0000 64.0000 -0.7042
51.0000 65.0000 -0.7451
51.0000 66.0000 -0.7578
51.0000 67.0000 -0.7607
51.0000 68.0000 -0.7790
51.0000 69.0000 -0.7798
51.0000 70.0000 -0.7851
51.0000 71.0000 -0.8221
51.0000 72.0000 -0.8282
51.0000 73.0000 -0.8223
51.0000 74.0000 -0.8341
51.0000 75.0000 -0.8299
51.0000 76.0000 -0.8399
51.0000 77.0000 -0.8243
51.0000 78.0000 -0.8574
51.0000 79.0000 -0.8557
51.0000 80.0000 -0.8534
51.0000 81.0000 -0.8467
51.0000 82.0000 -0.8514
51.0000 83.0000 -0.8215
51.0000 84.0000 -0.7960
51.0000 85.0000 -0.7300
51.0000 86.0000 -0.6674
51.0000 87.0000 -0.3619
51.0000 88.0000 0.0866
51.0000 89.0000 0.2636
51.0000 90.0000 0.2402
51.0000 91.0000 0.2585
51.0000 92.0000 0.2949
51.0000 93.0000 0.3382
51.0000 94.0000 0.3583
51.0000 95.0000 0.3427
51.0000 96.0000 0.3768
51.0000 97.0000 0.4130
51.0000 98.0000 0.4227
51.0000 99.0000 0.4618
51.0000 100.0000 0.5092
51.0000 101.0000 0.5605
51.0000 102.0000 0.8206
51.0000 103.0000 0.8634
51.0000 104.0000 0.7691
51.0000 105.0000 0.7208
51.0000 106.0000 0.7799
51.0000 107.0000 0.8872
51.0000 108.0000 0.9381
51.0000 109.0000 0.7397
51.0000 110.0000 0.6401
51.0000 111.0000 0.5595
51.0000 112.0000 0.4952
51.0000 113.0000 0.4289
51.0000 114.0000 0.4051
51.0000 115.0000 0.2934
51.0000 116.0000 0.2404
51.0000 117.0000 0.2043
51.0000 118.0000 0.1679
51.0000 119.0000 0.1302
51.0000 120.0000 0.1222
52.0000 0.0000 -0.0134
52.0000 1.0000 0.0176
52.0000 2.0000 -0.0747
52.0000 3.0000 -0.0906
52.0000 4.0000 -0.1072
52.0000 5.0000 -0.1062
52.0000 6.0000 -0.1016
52.0000 7.0000 -0.0932
52.0000 8.0000 -0.1940
52.0000 9.0000 -0.1855
52.0000 10.0000 -0.1883
52.0000 11.0000 -0.1597
52.0000 12.0000 -0.1823
52.0000 13.0000 -0.1778
52.0000 14.0000 -0.1752
52.0000 15.0000 -0.1564
52.0000 16.0000 -0.1228
52.0000 17.0000 -0.0479
52.0000 18.0000 -0.0260
52.0000 19.0000 -0.0041
52.0000 20.0000 -0.0011
52.0000 21.0000 0.0642
52.0000 22.0000 0.1570
52.0000 23.0000 0.1537
52.0000 24.0000 0.1462
52.0000 25.0000 0.1449
52.0000 26.0000 0.0333
52.0000 27.0000 0.0333
52.0000 28.0000 -0.0810
52.0000 29.0000 -0.1415
52.0000 30.0000 -0.1916
52.0000 31.0000 -0.2433
52.0000 32.0000 -0.2613
52.0000 33.0000 -0.2555
52.0000 34.0000 -0.2510
52.0000 35.0000 -0.2837
52.0000 36.0000 -0.3281
52.0000 37.0000 -0.3796
52.0000 38.0000 -0.4058
52.0000 39.0000 -0.4351
52.0000 40.0000 -0.4427
52.0000 41.0000 -0.4489
52.0000 42.0000 -0.4575
52.0000 43.0000 -0.4635
52.0000 44.0000 -0.4906
52.0000 45.0000 -0.4991
52.0000 46.0000 -0.5370
52.0000 47.0000 -0.5793
52.0000 48.0000 -0.5971
52.0000 49.0000 -0.6198
52.0000 50.0000 -0.6168
52.0000 51.0000 -0.6008
52.0000 52.0000 -0.6066
52.0000 53.0000 -0.6085
52.0000 54.0000 -0.5949
52.0000 55.0000 -0.5783
52.0000 56.0000 -0.5768
52.0000 57.0000 -0.5884
52.0000 58.0000 -0.6101
52.0000 59.0000 -0.6277
52.0000 60.0000 -0.6352
52.0000 61.0000 -0.6561
52.0000 62.0000 -0.6587
52.0000 63.0000 -0.6585
52.0000 64.0000 -0.6862
52.0000 65.0000 -0.7088
52.0000 66.0000 -0.7065
52.0000 67.0000 -0.7285
52.0000 68.0000 -0.7504
52.0000 69.0000 -0.7716
52.0000 70.0000 -0.7931
52.0000 71.0000 -0.8051
52.0000 72.0000 -0.8021
52.0000 73.0000 -0.8141
52.0000 74.0000 -0.7985
52.0000 75.0000 -0.7891
52.0000 76.0000 -0.8340
52.0000 77.0000 -0.8028
52.0000 78.0000 -0.8135
52.0000 79.0000 -0.8202
52.0000 80.0000 -0.8217
52.0000 81.0000 -0.8412
52.0000 82.0000 -0.8441
52.0000 83.0000 -0.8365
52.0000 84.0000 -0.8212
52.0000 85.0000 -0.8179
52.0000 86.0000 -0.7521
52.0000 87.0000 -0.4985
52.0000 88.0000 -0.4867
52.0000 89.0000 -0.2549
52.0000 90.0000 0.1498
52.0000 91.0000 0.3106
52.0000 92.0000 0.3306
52.0000 93.0000 0.3365
52.0000 94.0000 0.3486
52.0000 95.0000 0.3415
52.0000 96.0000 0.3509
52.0000 97.0000 0.3608
52.0000 98.0000 0.3766
52.0000 99.0000 0.4063
52.0000 100.0000 0.4593
52.0000 101.0000 0.5109
52.0000 102.0000 0.5923
52.0000 103.0000 0.6653
52.0000 104.0000 0.7869
52.0000 105.0000 0.8603
52.0000 106.0000 0.8891
52.0000 107.0000 0.8307
52.0000 108.0000 0.7505
52.0000 109.0000 0.6553
52.0000 110.0000 0.5773
52.0000 111.0000 0.5167
52.0000 112.0000 0.4677
52.0000 113.0000 0.4368
52.0000 114.0000 0.4257
52.0000 115.0000 0.2845
52.0000 116.0000 0.2432
52.0000 117.0000 0.1932
52.0000 118.0000 0.1588
52.0000 119.0000 0.1318
52.0000 120.0000 0.1230
53.0000 0.0000 -0.0535
53.0000 1.0000 -0.0617
53.0000 2.0000 -0.0690
53.0000 3.0000 -0.0939
53.0000 4.0000 -0.1596
53.0000 5.0000 -0.1403
53.0000 6.0000 -0.1269
53.0000 7.0000 -0.1150
53.0000 8.0000 -0.1862
53.0000 9.0000 -0.1840
53.0000 10.0000 -0.1813
53.0000 11.0000 -0.1189
53.0000 12.0000 -0.1742
53.0000 13.0000 -0.1255
53.0000 14.0000 -0.1660
53.0000 15.0000 -0.1231
53.0000 16.0000 -0.0624
53.0000 17.0000 -0.0358
53.0000 18.0000 0.0139
53.0000 19.0000 -0.0376
53.0000 20.0000 -0.0046
53.0000 21.0000 0.1635
53.0000 22.0000 0.0489
53.0000 23.0000 -0.0344
53.0000 24.0000 -0.0253
53.0000 25.0000 0.0667
53.0000 26.0000 0.1573
53.0000 27.0000 0.0565
53.0000 28.0000 -0.0898
53.0000 29.0000 -0.1395
53.0000 30.0000 -0.1914
53.0000 31.0000 -0.2138
53.0000 32.0000 -0.2296
53.0000 33.0000 -0.2275
53.0000 34.0000 -0.2407
53.0000 35.0000 -0.2822
53.0000 36.0000 -0.3127
53.0000 37.0000 -0.3582
53.0000 38.0000 -0.3849
53.0000 39.0000 -0.4038
53.0000 40.0000 -0.4168
53.0000 41.0000 -0.4254
53.0000 42.0000 -0.4386
53.0000 43.0000 -0.4207
53.0000 44.0000 -0.4489
53.0000 45.0000 -0.4757
53.0000 46.0000 -0.4873
53.0000 47.0000 -0.5264
53.0000 48.0000 -0.5675
53.0000 49.0000 -0.5939
53.0000 50.0000 -0.5966
53.0000 51.0000 -0.6037
53.0000 52.0000 -0.5934
53.0000 53.0000 -0.6012
53.0000 54.0000 -0.5891
53.0000 55.0000 -0.5889
53.0000 56.0000 -0.5810
53.0000 57.0000 -0.5937
53.0000 58.0000 -0.6097
53.0000 59.0000 -0.6231
53.0000 60.0000 -0.6338
53.0000 61.0000 -0.6434
53.0000 62.0000 -0.6424
53.0000 63.0000 -0.6438
53.0000 64.0000 -0.6570
53.0000 65.0000 -0.6820
53.0000 66.0000 -0.7039
53.0000 67.0000 -0.7107
53.0000 68.0000 -0.7289
53.0000 69.0000 -0.7528
53.0000 70.0000 -0.7669
53.0000 71.0000 -0.7776
53.0000 72.0000 -0.7780
53.0000 73.0000 -0.7754
53.0000 74.0000 -0.7622
53.0000 75.0000 -0.7688
53.0000 76.0000 -0.7808
53.0000 77.0000 -0.7875
53.0000 78.0000 -0.8177
53.0000 79.0000 -0.8183
53.0000 80.0000 -0.8316
53.0000 81.0000 -0.8521
53.0000 82.0000 -0.8647
53.0000 83.0000 -0.8513
53.0000 84.0000 -0.8271
53.0000 85.0000 -0.8529
53.0000 86.0000 -0.8429
53.0000 87.0000 -0.7224
53.0000 88.0000 -0.8731
53.0000 89.0000 -0.9038
53.0000 90.0000 -0.2113
53.0000 91.0000 0.3491
53.0000 92.0000 0.3233
53.0000 93.0000 0.3654
53.0000 94.0000 0.3720
53.0000 95.0000 0.3513
53.0000 96.0000 0.3194
53.0000 97.0000 0.3414
53.0000 98.0000 0.3828
53.0000 99.0000 0.3997
53.0000 100.0000 0.4294
53.0000 101.0000 0.4686
53.0000 102.0000 0.5045
53.0000 103.0000 0.5377
53.0000 104.0000 0.5653
53.0000 105.0000 0.6179
53.0000 106.0000 0.6005
53.0000 107.0000 0.6440
53.0000 108.0000 0.6185
53.0000 109.0000 0.5704
53.0000 110.0000 0.5208
53.0000 111.0000 0.4892
53.0000 112.0000 0.4259
53.0000 113.0000 0.3778
53.0000 114.0000 0.3165
53.0000 115.0000 0.2744
53.0000 116.0000 0.2166
53.0000 117.0000 0.1799
53.0000 118.0000 0.1539
53.0000 119.0000 0.1364
53.0000 120.0000 0.1251
54.0000 0.0000 -0.0733
54.0000 1.0000 -0.1025
54.0000 2.0000 -0.0979
54.0000 3.0000 -0.0969
54.0000 4.0000 -0.0947
54.0000 5.0000 -0.1360
54.0000 6.0000 -0.1418
54.0000 7.0000 -0.0353
54.0000 8.0000 -0.1312
54.0000 9.0000 -0.1663
54.0000 10.0000 -0.1974
54.0000 11.0000 -0.1806
54.0000 12.0000 -0.1836
54.0000 13.0000 -0.1174
54.0000 14.0000 -0.1021
54.0000 15.0000 -0.1714
54.0000 16.0000 -0.2983
54.0000 17.0000 -0.2979
54.0000 18.0000 -0.1240
54.0000 19.0000 -0.0308
54.0000 20.0000 -0.0181
54.0000 21.0000 0.0963
54.0000 22.0000 -0.1158
54.0000 23.0000 -0.2415
54.0000 24.0000 -0.2367
54.0000 25.0000 -0.1014
54.0000 26.0000 0.0766
54.0000 27.0000 0.0650
54.0000 28.0000 -0.0711
54.0000 29.0000 -0.1024
54.0000 30.0000 -0.1562
54.0000 31.0000 -0.1712
54.0000 32.0000 -0.1730
54.0000 33.0000 -0.1825
54.0000 34.0000 -0.2068
54.0000 35.0000 -0.2383
54.0000 36.0000 -0.2669
54.0000 37.0000 -0.3085
54.0000 38.0000 -0.3212
54.0000 39.0000 -0.3372
54.0000 40.0000 -0.3456
54.0000 41.0000 -0.3546
54.0000 42.0000 -0.3782
54.0000 43.0000 -0.3743
54.0000 44.0000 -0.3875
54.0000 45.0000 -0.4044
54.0000 46.0000 -0.4261
54.0000 47.0000 -0.4441
54.0000 48.0000 -0.4733
54.0000 49.0000 -0.4899
54.0000 50.0000 -0.4956
54.0000 51.0000 -0.5111
54.0000 52.0000 -0.5186
54.0000 53.0000 -0.5176
54.0000 54.0000 -0.5139
54.0000 55.0000 -0.4934
54.0000 56.0000 -0.4828
54.0000 57.0000 -0.5080
54.0000 58.0000 -0.5168
54.0000 59.0000 -0.5294
54.0000 60.0000 -0.5490
54.0000 61.0000 -0.5578
54.0000 62.0000 -0.5775
54.0000 63.0000 -0.5720
54.0000 64.0000 -0.5891
54.0000 65.0000 -0.6086
54.0000 66.0000 -0.6383
54.0000 67.0000 -0.6385
54.0000 68.0000 -0.6449
54.0000 69.0000 -0.6644
54.0000 70.0000 -0.6634
54.0000 71.0000 -0.6681
54.0000 72.0000 -0.6578
54.0000 73.0000 -0.6560
54.0000 74.0000 -0.6571
54.0000 75.0000 -0.6928
54.0000 76.0000 -0.6886
54.0000 77.0000 -0.7259
54.0000 78.0000 -0.7288
54.0000 79.0000 -0.7360
54.0000 80.0000 -0.7613
54.0000 81.0000 -0.7735
54.0000 82.0000 -0.7879
54.0000 83.0000 -0.7810
54.0000 84.0000 -0.7978
54.0000 85.0000 -0.8159
54.0000 86.0000 -0.8323
54.0000 87.0000 -0.8470
54.0000 88.0000 -0.8655
54.0000 89.0000 -0.8821
54.0000 90.0000 -0.3363
54.0000 91.0000 0.3342
54.0000 92.0000 0.3325
54.0000 93.0000 0.3380
54.0000 94.0000 0.3504
54.0000 95.0000 0.3280
54.0000 96.0000 0.3117
54.0000 97.0000 0.3071
54.0000 98.0000 0.3206
54.0000 99.0000 0.3544
54.0000 100.0000 0.3763
54.0000 101.0000 0.3844
54.0000 102.0000 0.4210
54.0000 103.0000 0.4690
54.0000 104.0000 0.4900
54.0000 105.0000 0.5276
54.0000 106.0000 0.5439
54.0000 107.0000 0.5481
54.0000 108.0000 0.5295
54.0000 109.0000 0.4918
54.0000 110.0000 0.4704
54.0000 111.0000 0.4273
54.0000 112.0000 0.3818
54.0000 113.0000 0.3376
54.0000 114.0000 0.3038
54.0000 115.0000 0.2539
54.0000 116.0000 0.2060
54.0000 117.0000 0.1739
54.0000 118.0000 0.1631
54.0000 119.0000 0.1491
54.0000 120.0000 0.1450
55.0000 0.0000 -0.0933
55.0000 1.0000 -0.1529
55.0000 2.0000 -0.0942
55.0000 3.0000 -0.0904
55.0000 4.0000 -0.0635
55.0000 5.0000 -0.1329
55.0000 6.0000 -0.1342
55.0000 7.0000 -0.0887
55.0000 8.0000 -0.0823
55.0000 9.0000 -0.1176
55.0000 10.0000 -0.1917
55.0000 11.0000 -0.1942
55.0000 12.0000 -0.1845
55.0000 13.0000 -0.1877
55.0000 14.0000 -0.1572
55.0000 15.0000 -0.2369
55.0000 16.0000 -0.3929
55.0000 17.0000 -0.3845
55.0000 18.0000 -0.1876
55.0000 19.0000 -0.0593
55.0000 20.0000 -0.0824
55.0000 21.0000 0.0383
55.0000 22.0000 -0.1813
55.0000 23.0000 -0.3331
55.0000 24.0000 -0.3340
55.0000 25.0000 -0.1764
55.0000 26.0000 0.0183
55.0000 27.0000 0.0543
55.0000 28.0000 -0.0954
55.0000 29.0000 -0.1012
55.0000 30.0000 -0.1322
55.0000 31.0000 -0.1526
55.0000 32.0000 -0.1856
55.0000 33.0000 -0.2123
55.0000 34.0000 -0.1857
55.0000 35.0000 -0.2230
55.0000 36.0000 -0.2313
55.0000 37.0000 -0.2736
55.0000 38.0000 -0.2606
55.0000 39.0000 -0.3336
55.0000 40.0000 -0.3145
55.0000 41.0000 -0.3398
55.0000 42.0000 -0.3713
55.0000 43.0000 -0.3611
55.0000 44.0000 -0.3813
55.0000 45.0000 -0.3749
55.0000 46.0000 -0.3732
55.0000 47.0000 -0.4127
55.0000 48.0000 -0.3910
55.0000 49.0000 -0.4069
55.0000 50.0000 -0.4064
55.0000 51.0000 -0.4344
55.0000 52.0000 -0.4172
55.0000 53.0000 -0.4348
55.0000 54.0000 -0.4411
55.0000 55.0000 -0.4339
55.0000 56.0000 -0.4198
55.0000 57.0000 -0.4145
55.0000 58.0000 -0.4352
55.0000 59.0000 -0.4469
55.0000 60.0000 -0.4843
55.0000 61.0000 -0.5058
55.0000 62.0000 -0.5200
55.0000 63.0000 -0.5257
55.0000 64.0000 -0.5448
55.0000 65.0000 -0.5614
55.0000 66.0000 -0.5921
55.0000 67.0000 -0.6040
55.0000 68.0000 -0.6060
55.0000 69.0000 -0.6248
55.0000 70.0000 -0.6279
55.0000 71.0000 -0.6195
55.0000 72.0000 -0.6007
55.0000 73.0000 -0.5968
55.0000 74.0000 -0.6313
55.0000 75.0000 -0.6521
55.0000 76.0000 -0.6627
55.0000 77.0000 -0.6649
55.0000 78.0000 -0.7079
55.0000 79.0000 -0.6874
55.0000 80.0000 -0.7084
55.0000 81.0000 -0.7294
55.0000 82.0000 -0.7287
55.0000 83.0000 -0.7641
55.0000 84.0000 -0.7827
55.0000 85.0000 -0.7966
55.0000 86.0000 -0.8337
55.0000 87.0000 -0.8582
55.0000 88.0000 -0.8780
55.0000 89.0000 -0.8694
55.0000 90.0000 -0.5544
55.0000 91.0000 0.2733
55.0000 92.0000 0.3221
55.0000 93.0000 0.3210
55.0000 94.0000 0.3243
55.0000 95.0000 0.2884
55.0000 96.0000 0.2803
55.0000 97.0000 0.2853
55.0000 98.0000 0.2798
55.0000 99.0000 0.2738
55.0000 100.0000 0.2976
55.0000 101.0000 0.3212
55.0000 102.0000 0.3400
55.0000 103.0000 0.3738
55.0000 104.0000 0.4233
55.0000 105.0000 0.4508
55.0000 106.0000 0.4767
55.0000 107.0000 0.4630
55.0000 108.0000 0.4823
55.0000 109.0000 0.4207
55.0000 110.0000 0.3962
55.0000 111.0000 0.3851
55.0000 112.0000 0.3410
55.0000 113.0000 0.3032
55.0000 114.0000 0.2717
55.0000 115.0000 0.2298
55.0000 116.0000 0.2008
55.0000 117.0000 0.1856
55.0000 118.0000 0.1713
55.0000 119.0000 0.1535
55.0000 120.0000 0.1528
56.0000 0.0000 -0.1243
56.0000 1.0000 -0.1645
56.0000 2.0000 -0.0848
56.0000 3.0000 -0.1152
56.0000 4.0000 -0.0370
56.0000 5.0000 -0.1659
56.0000 6.0000 -0.1474
56.0000 7.0000 -0.1449
56.0000 8.0000 -0.1220
56.0000 9.0000 -0.1222
56.0000 10.0000 -0.1849
56.0000 11.0000 -0.1736
56.0000 12.0000 -0.1994
56.0000 13.0000 -0.1899
56.0000 14.0000 -0.2082
56.0000 15.0000 -0.1506
56.0000 16.0000 -0.2783
56.0000 17.0000 -0.2819
56.0000 18.0000 -0.1315
56.0000 19.0000 -0.1049
56.0000 20.0000 -0.1052
56.0000 21.0000 0.0463
56.0000 22.0000 -0.1524
56.0000 23.0000 -0.3052
56.0000 24.0000 -0.2783
56.0000 25.0000 -0.1515
56.0000 26.0000 0.0342
56.0000 27.0000 0.0337
56.0000 28.0000 -0.0988
56.0000 29.0000 -0.1058
56.0000 30.0000 -0.1291
56.0000 31.0000 -0.1482
56.0000 32.0000 -0.2006
56.0000 33.0000 -0.2164
56.0000 34.0000 -0.2140
56.0000 35.0000 -0.1872
56.0000 36.0000 -0.2064
56.0000 37.0000 -0.2416
56.0000 38.0000 -0.2582
56.0000 39.0000 -0.2653
56.0000 40.0000 -0.3255
56.0000 41.0000 -0.3468
56.0000 42.0000 -0.3559
56.0000 43.0000 -0.3478
56.0000 44.0000 -0.4184
56.0000 45.0000 -0.3820
56.0000 46.0000 -0.3711
56.0000 47.0000 -0.3743
56.0000 48.0000 -0.3895
56.0000 49.0000 -0.3982
56.0000 50.0000 -0.3914
56.0000 51.0000 -0.4363
56.0000 52.0000 -0.4076
56.0000 53.0000 -0.4356
56.0000 54.0000 -0.4302
56.0000 55.0000 -0.4196
56.0000 56.0000 -0.4311
56.0000 57.0000 -0.4389
56.0000 58.0000 -0.4376
56.0000 59.0000 -0.4347
56.0000 60.0000 -0.4779
56.0000 61.0000 -0.4959
56.0000 62.0000 -0.5016
56.0000 63.0000 -0.5080
56.0000 64.0000 -0.5198
56.0000 65.0000 -0.5449
56.0000 66.0000 -0.5686
56.0000 67.0000 -0.5806
56.0000 68.0000 -0.5916
56.0000 69.0000 -0.6071
56.0000 70.0000 -0.6064
56.0000 71.0000 -0.6030
56.0000 72.0000 -0.5894
56.0000 73.0000 -0.6138
56.0000 74.0000 -0.6196
56.0000 75.0000 -0.6570
56.0000 76.0000 -0.6809
56.0000 77.0000 -0.6703
56.0000 78.0000 -0.7110
56.0000 79.0000 -0.7129
56.0000 80.0000 -0.7042
56.0000 81.0000 -0.7242
56.0000 82.0000 -0.7468
56.0000 83.0000 -0.7563
56.0000 84.0000 -0.7658
56.0000 85.0000 -0.7931
56.0000 86.0000 -0.8238
56.0000 87.0000 -0.8533
56.0000 88.0000 -0.8406
56.0000 89.0000 -0.8642
56.0000 90.0000 -0.5905
56.0000 91.0000 0.3036
56.0000 92.0000 0.2804
56.0000 93.0000 0.2651
56.0000 94.0000 0.2883
56.0000 95.0000 0.2784
56.0000 96.0000 0.2492
56.0000 97.0000 0.2374
56.0000 98.0000 0.2114
56.0000 99.0000 0.2297
56.0000 100.0000 0.2279
56.0000 101.0000 0.2402
56.0000 102.0000 0.2715
56.0000 103.0000 0.3240
56.0000 104.0000 0.3667
56.0000 105.0000 0.3807
56.0000 106.0000 0.3875
56.0000 107.0000 0.3777
56.0000 108.0000 0.3675
56.0000 109.0000 0.3814
56.0000 110.0000 0.3496
56.0000 111.0000 0.3106
56.0000 112.0000 0.3160
56.0000 113.0000 0.2786
56.0000 114.0000 0.2363
56.0000 115.0000 0.2076
56.0000 116.0000 0.1900
56.0000 117.0000 0.1814
56.0000 118.0000 0.1621
56.0000 119.0000 0.1440
56.0000 120.0000 0.1569
57.0000 0.0000 -0.1521
57.0000 1.0000 -0.2028
57.0000 2.0000 -0.1711
57.0000 3.0000 -0.1249
57.0000 4.0000 -0.1209
57.0000 5.0000 -0.1391
57.0000 6.0000 -0.1086
57.0000 7.0000 -0.0069
57.0000 8.0000 -0.1884
57.0000 9.0000 -0.1690
57.0000 10.0000 -0.1882
57.0000 11.0000 -0.1979
57.0000 12.0000 -0.2056
57.0000 13.0000 -0.2242
57.0000 14.0000 -0.2306
57.0000 15.0000 -0.2268
57.0000 16.0000 -0.1679
57.0000 17.0000 -0.1778
57.0000 18.0000 -0.1936
57.0000 19.0000 -0.1805
57.0000 20.0000 -0.1478
57.0000 21.0000 0.0108
57.0000 22.0000 -0.0287
57.0000 23.0000 -0.1215
57.0000 24.0000 -0.1213
57.0000 25.0000 -0.0385
57.0000 26.0000 0.0703
57.0000 27.0000 -0.0836
57.0000 28.0000 -0.1158
57.0000 29.0000 -0.1236
57.0000 30.0000 -0.1320
57.0000 31.0000 -0.1608
57.0000 32.0000 -0.1788
57.0000 33.0000 -0.1950
57.0000 34.0000 -0.2043
57.0000 35.0000 -0.1953
57.0000 36.0000 -0.1768
57.0000 37.0000 -0.2901
57.0000 38.0000 -0.2108
57.0000 39.0000 -0.3401
57.0000 40.0000 -0.3344
57.0000 41.0000 -0.2926
57.0000 42.0000 -0.3527
57.0000 43.0000 -0.4109
57.0000 44.0000 -0.4191
57.0000 45.0000 -0.3871
57.0000 46.0000 -0.3804
57.0000 47.0000 -0.3688
57.0000 48.0000 -0.3754
57.0000 49.0000 -0.4273
57.0000 50.0000 -0.4020
57.0000 51.0000 -0.4471
57.0000 52.0000 -0.4262
57.0000 53.0000 -0.3900
57.0000 54.0000 -0.4149
57.0000 55.0000 -0.4350
57.0000 56.0000 -0.4581
57.0000 57.0000 -0.4417
57.0000 58.0000 -0.4611
57.0000 59.0000 -0.4577
57.0000 60.0000 -0.4819
57.0000 61.0000 -0.5046
57.0000 62.0000 -0.4910
57.0000 63.0000 -0.5086
57.0000 64.0000 -0.5409
57.0000 65.0000 -0.5339
57.0000 66.0000 -0.5755
57.0000 67.0000 -0.5614
57.0000 68.0000 -0.5632
57.0000 69.0000 -0.5771
57.0000 70.0000 -0.6235
57.0000 71.0000 -0.5856
57.0000 72.0000 -0.5932
57.0000 73.0000 -0.6151
57.0000 74.0000 -0.6311
57.0000 75.0000 -0.6609
57.0000 76.0000 -0.6771
57.0000 77.0000 -0.6725
57.0000 78.0000 -0.7154
57.0000 79.0000 -0.6905
57.0000 80.0000 -0.7167
57.0000 81.0000 -0.7272
57.0000 82.0000 -0.7443
57.0000 83.0000 -0.7481
57.0000 84.0000 -0.7603
57.0000 85.0000 -0.7890
57.0000 86.0000 -0.8253
57.0000 87.0000 -0.8524
57.0000 88.0000 -0.8382
57.0000 89.0000 -0.8452
57.0000 90.0000 -0.5770
57.0000 91.0000 0.3692
57.0000 92.0000 0.2660
57.0000 93.0000 0.2450
57.0000 94.0000 0.2428
57.0000 95.0000 0.2337
57.0000 96.0000 0.1976
57.0000 97.0000 0.1748
57.0000 98.0000 0.1695
57.0000 99.0000 0.1812
57.0000 100.0000 0.1771
57.0000 101.0000 0.2047
57.0000 102.0000 0.2395
57.0000 103.0000 0.2573
57.0000 104.0000 0.2854
57.0000 105.0000 0.3067
57.0000 106.0000 0.3212
57.0000 107.0000 0.3088
57.0000 108.0000 0.3190
57.0000 109.0000 0.2961
57.0000 110.0000 0.2848
57.0000 111.0000 0.2697
57.0000 112.0000 0.2449
57.0000 113.0000 0.2363
57.0000 114.0000 0.2214
57.0000 115.0000 0.1751
57.0000 116.0000 0.1556
57.0000 117.0000 0.1627
57.0000 118.0000 0.1621
57.0000 119.0000 0.1437
57.0000 120.0000 0.1509
58.0000 0.0000 -0.1756
58.0000 1.0000 -0.2069
58.0000 2.0000 -0.1730
58.0000 3.0000 -0.1545
58.0000 4.0000 -0.1118
58.0000 5.0000 -0.1448
58.0000 6.0000 -0.0180
58.0000 7.0000 -0.1606
58.0000 8.0000 -0.1034
58.0000 9.0000 -0.0478
58.0000 10.0000 -0.1707
58.0000 11.0000 -0.2001
58.0000 12.0000 -0.2267
58.0000 13.0000 -0.2135
58.0000 14.0000 -0.2287
58.0000 15.0000 -0.2275
58.0000 16.0000 -0.1707
58.0000 17.0000 -0.2154
58.0000 18.0000 -0.2170
58.0000 19.0000 -0.1579
58.0000 20.0000 -0.1668
58.0000 21.0000 -0.1393
58.0000 22.0000 -0.0189
58.0000 23.0000 0.0089
58.0000 24.0000 0.0498
58.0000 25.0000 0.0733
58.0000 26.0000 -0.0414
58.0000 27.0000 -0.0862
58.0000 28.0000 -0.0883
58.0000 29.0000 -0.1254
58.0000 30.0000 -0.1346
58.0000 31.0000 -0.1495
58.0000 32.0000 -0.1570
58.0000 33.0000 -0.1838
58.0000 34.0000 -0.1637
58.0000 35.0000 -0.1325
58.0000 36.0000 -0.1384
58.0000 37.0000 -0.2071
58.0000 38.0000 -0.2544
58.0000 39.0000 -0.3203
58.0000 40.0000 -0.3030
58.0000 41.0000 -0.3176
58.0000 42.0000 -0.3946
58.0000 43.0000 -0.3965
58.0000 44.0000 -0.4269
58.0000 45.0000 -0.3891
58.0000 46.0000 -0.3714
58.0000 47.0000 -0.3898
58.0000 48.0000 -0.3845
58.0000 49.0000 -0.4406
58.0000 50.0000 -0.4542
58.0000 51.0000 -0.4678
58.0000 52.0000 -0.4467
58.0000 53.0000 -0.4262
58.0000 54.0000 -0.4387
58.0000 55.0000 -0.4471
58.0000 56.0000 -0.4626
58.0000 57.0000 -0.4815
58.0000 58.0000 -0.4812
58.0000 59.0000 -0.4559
58.0000 60.0000 -0.4761
58.0000 61.0000 -0.5049
58.0000 62.0000 -0.4993
58.0000 63.0000 -0.4986
58.0000 64.0000 -0.5322
58.0000 65.0000 -0.5483
58.0000 66.0000 -0.5613
58.0000 67.0000 -0.5442
58.0000 68.0000 -0.5363
58.0000 69.0000 -0.5617
58.0000 70.0000 -0.5761
58.0000 71.0000 -0.5936
58.0000 72.0000 -0.5999
58.0000 73.0000 -0.6291
58.0000 74.0000 -0.6264
58.0000 75.0000 -0.6536
58.0000 76.0000 -0.6464
58.0000 77.0000 -0.6727
58.0000 78.0000 -0.7028
58.0000 79.0000 -0.7058
58.0000 80.0000 -0.6935
58.0000 81.0000 -0.7466
58.0000 82.0000 -0.7417
58.0000 83.0000 -0.7569
58.0000 84.0000 -0.7814
58.0000 85.0000 -0.8025
58.0000 86.0000 -0.8336
58.0000 87.0000 -0.8842
58.0000 88.0000 -0.8020
58.0000 89.0000 -0.8027
58.0000 90.0000 -0.4427
58.0000 91.0000 0.2812
58.0000 92.0000 0.2369
58.0000 93.0000 0.2019
58.0000 94.0000 0.1990
58.0000 95.0000 0.1836
58.0000 96.0000 0.1516
58.0000 97.0000 0.1239
58.0000 98.0000 0.1345
58.0000 99.0000 0.1350
58.0000 100.0000 0.1303
58.0000 101.0000 0.1686
58.0000 102.0000 0.2366
58.0000 103.0000 0.1925
58.0000 104.0000 0.2105
58.0000 105.0000 0.2540
58.0000 106.0000 0.3386
58.0000 107.0000 0.2763
58.0000 108.0000 0.2529
58.0000 109.0000 0.2856
58.0000 110.0000 0.2382
58.0000 111.0000 0.2195
58.0000 112.0000 0.2010
58.0000 113.0000 0.1874
58.0000 114.0000 0.1687
58.0000 115.0000 0.1483
58.0000 116.0000 0.1528
58.0000 117.0000 0.3107
58.0000 118.0000 0.3134
58.0000 119.0000 0.1264
58.0000 120.0000 0.1398
59.0000 0.0000 -0.1570
59.0000 1.0000 -0.1967
59.0000 2.0000 -0.1840
59.0000 3.0000 -0.1833
59.0000 4.0000 -0.1464
59.0000 5.0000 -0.1306
59.0000 6.0000 -0.1503
59.0000 7.0000 -0.1228
59.0000 8.0000 -0.1066
59.0000 9.0000 -0.1198
59.0000 10.0000 -0.1997
59.0000 11.0000 -0.1627
59.0000 12.0000 -0.1999
59.0000 13.0000 -0.2020
59.0000 14.0000 -0.2305
59.0000 15.0000 -0.2416
59.0000 16.0000 -0.2124
59.0000 17.0000 -0.2127
59.0000 18.0000 -0.2107
59.0000 19.0000 -0.1887
59.0000 20.0000 -0.1748
59.0000 21.0000 -0.1603
59.0000 22.0000 -0.1328
59.0000 23.0000 -0.0807
59.0000 24.0000 -0.1119
59.0000 25.0000 0.0488
59.0000 26.0000 -0.0688
59.0000 27.0000 -0.0521
59.0000 28.0000 -0.0258
59.0000 29.0000 -0.0708
59.0000 30.0000 -0.1481
59.0000 31.0000 -0.1473
59.0000 32.0000 -0.1416
59.0000 33.0000 -0.2115
59.0000 34.0000 -0.1717
59.0000 35.0000 -0.1811
59.0000 36.0000 -0.1937
59.0000 37.0000 -0.3013
59.0000 38.0000 -0.2530
59.0000 39.0000 -0.2772
59.0000 40.0000 -0.3184
59.0000 41.0000 -0.3109
59.0000 42.0000 -0.2961
59.0000 43.0000 -0.3722
59.0000 44.0000 -0.4623
59.0000 45.0000 -0.3912
59.0000 46.0000 -0.3619
59.0000 47.0000 -0.3439
59.0000 48.0000 -0.3867
59.0000 49.0000 -0.4489
59.0000 50.0000 -0.4754
59.0000 51.0000 -0.4460
59.0000 52.0000 -0.4418
59.0000 53.0000 -0.4507
59.0000 54.0000 -0.4575
59.0000 55.0000 -0.4685
59.0000 56.0000 -0.4706
59.0000 57.0000 -0.4797
59.0000 58.0000 -0.4872
59.0000 59.0000 -0.4955
59.0000 60.0000 -0.4794
59.0000 61.0000 -0.4888
59.0000 62.0000 -0.4726
59.0000 63.0000 -0.4997
59.0000 64.0000 -0.5123
59.0000 65.0000 -0.5257
59.0000 66.0000 -0.5377
59.0000 67.0000 -0.5409
59.0000 68.0000 -0.5303
59.0000 69.0000 -0.5514
59.0000 70.0000 -0.5675
59.0000 71.0000 -0.5932
59.0000 72.0000 -0.6032
59.0000 73.0000 -0.6322
59.0000 74.0000 -0.6108
59.0000 75.0000 -0.6477
59.0000 76.0000 -0.6663
59.0000 77.0000 -0.6607
59.0000 78.0000 -0.6762
59.0000 79.0000 -0.7277
59.0000 80.0000 -0.6796
59.0000 81.0000 -0.7404
59.0000 82.0000 -0.7341
59.0000 83.0000 -0.7695
59.0000 84.0000 -0.7615
59.0000 85.0000 -0.7866
59.0000 86.0000 -0.8073
59.0000 87.0000 -0.8595
59.0000 88.0000 -0.8357
59.0000 89.0000 -0.7875
59.0000 90.0000 -0.3398
59.0000 91.0000 0.2688
59.0000 92.0000 0.2800
59.0000 93.0000 0.1080
59.0000 94.0000 0.1651
59.0000 95.0000 0.1453
59.0000 96.0000 0.1090
59.0000 97.0000 0.0906
59.0000 98.0000 0.0788
59.0000 99.0000 0.0803
59.0000 100.0000 0.1123
59.0000 101.0000 0.0909
59.0000 102.0000 0.0958
59.0000 103.0000 0.1097
59.0000 104.0000 0.1248
59.0000 105.0000 0.2895
59.0000 106.0000 0.1541
59.0000 107.0000 0.1856
59.0000 108.0000 0.1815
59.0000 109.0000 0.1852
59.0000 110.0000 0.2273
59.0000 111.0000 0.1788
59.0000 112.0000 0.1676
59.0000 113.0000 0.1416
59.0000 114.0000 0.1374
59.0000 115.0000 0.1307
59.0000 116.0000 0.1217
59.0000 117.0000 0.1419
59.0000 118.0000 0.1333
59.0000 119.0000 0.1136
59.0000 120.0000 0.1285
60.0000 0.0000 -0.0053
60.0000 1.0000 -0.1112
60.0000 2.0000 -0.1465
60.0000 3.0000 -0.1220
60.0000 4.0000 -0.1163
60.0000 5.0000 -0.0874
60.0000 6.0000 -0.0732
60.0000 7.0000 -0.0475
60.0000 8.0000 -0.0621
60.0000 9.0000 -0.0758
60.0000 10.0000 -0.0827
60.0000 11.0000 -0.0829
60.0000 12.0000 -0.1024
60.0000 13.0000 -0.1085
60.0000 14.0000 -0.1225
60.0000 15.0000 -0.1309
60.0000 16.0000 -0.1218
60.0000 17.0000 -0.1275
60.0000 18.0000 -0.1021
60.0000 19.0000 -0.0961
60.0000 20.0000 -0.0778
60.0000 21.0000 -0.0715
60.0000 22.0000 -0.0658
60.0000 23.0000 -0.0698
60.0000 24.0000 -0.0552
60.0000 25.0000 0.0040
60.0000 26.0000 -0.0350
60.0000 27.0000 -0.0197
60.0000 28.0000 -0.0224
60.0000 29.0000 -0.0085
60.0000 30.0000 -0.0644
60.0000 31.0000 -0.0856
60.0000 32.0000 -0.0902
60.0000 33.0000 -0.0841
60.0000 34.0000 -0.1013
60.0000 35.0000 -0.1173
60.0000 36.0000 -0.1061
60.0000 37.0000 -0.1313
60.0000 38.0000 -0.1587
60.0000 39.0000 -0.1962
60.0000 40.0000 -0.2065
60.0000 41.0000 -0.2547
60.0000 42.0000 -0.2931
60.0000 43.0000 -0.3192
60.0000 44.0000 -0.3306
60.0000 45.0000 -0.3272
60.0000 46.0000 -0.3139
60.0000 47.0000 -0.3181
60.0000 48.0000 -0.3202
60.0000 49.0000 -0.3638
60.0000 50.0000 -0.3605
60.0000 51.0000 -0.3760
60.0000 52.0000 -0.3898
60.0000 53.0000 -0.3904
60.0000 54.0000 -0.4013
60.0000 55.0000 -0.4246
60.0000 56.0000 -0.4235
60.0000 57.0000 -0.4279
60.0000 58.0000 -0.4382
60.0000 59.0000 -0.4490
60.0000 60.0000 -0.4666
60.0000 61.0000 -0.4388
60.0000 62.0000 -0.4210
60.0000 63.0000 -0.4255
60.0000 64.0000 -0.4451
60.0000 65.0000 -0.4649
60.0000 66.0000 -0.4768
60.0000 67.0000 -0.4775
60.0000 68.0000 -0.4747
60.0000 69.0000 -0.4964
60.0000 70.0000 -0.5072
60.0000 71.0000 -0.5164
60.0000 72.0000 -0.5345
60.0000 73.0000 -0.5386
60.0000 74.0000 -0.5532
60.0000 75.0000 -0.5504
60.0000 76.0000 -0.5861
60.0000 77.0000 -0.5908
60.0000 78.0000 -0.6288
60.0000 79.0000 -0.6334
60.0000 80.0000 -0.6406
60.0000 81.0000 -0.6360
60.0000 82.0000 -0.6528
60.0000 83.0000 -0.6688
60.0000 84.0000 -0.6930
60.0000 85.0000 -0.7041
60.0000 86.0000 -0.7234
60.0000 87.0000 -0.7531
60.0000 88.0000 -0.7708
